# .PCD v0.7 - Point Cloud Data file format
VERSION 0.7
FIELDS x y z rgb
SIZE 4 4 4 4
TYPE F F F F
COUNT 1 1 1 1
WIDTH 1033
HEIGHT 1
VIEWPOINT 0 0 0 1 0 0 0
POINTS 1033
DATA ascii
0.8144986 -0.23262802 0.76180077 1.4103776e-38
1.1744984 -0.2341415 0.76445252 6.1980818e-39
2.1010504 -0.233426 0.76835108 2.1761773e-38
0.79822779 -0.22913186 0.7602787 1.2630815e-38
0.80205506 -0.2216676 0.76075935 1.2907043e-38
0.81849897 -0.22523385 0.76244164 1.7148034e-38
1.1889977 -0.22545516 0.76621556 5.0964146e-39
1.1930001 -0.22595027 0.76670194 5.0953356e-39
2.0707448 -0.22823769 0.76579309 2.2405343e-38
0.80682194 -0.21017693 0.76132011 1.3644966e-38
0.82599938 -0.21848851 0.76364326 1.9085221e-38
0.83049971 -0.21104111 0.76436424 1.5396673e-38
1.2014995 -0.21611533 0.76773542 3.7059146e-39
2.1068347 -0.21579865 0.76880246 2.1853248e-38
0.83500016 -0.20352396 0.76508522 1.5120085e-38
1.2075 -0.20573014 0.76846492 3.4264396e-39
2.0607328 -0.20925841 0.76489031 2.2497539e-38
0.81696844 -0.1954571 0.76268196 1.9269252e-38
0.84350055 -0.19665654 0.76644707 1.3368009e-38
1.2130005 -0.19518542 0.76913369 3.5189954e-39
2.0556836 -0.1908966 0.76436365 2.2497539e-38
2.0996027 -0.19690663 0.76827586 2.1945444e-38
1.2175012 -0.18442988 0.76968086 3.7033894e-39
1.2490015 -0.17678919 0.76193005 3.4202991e-39
2.0436413 -0.1720904 0.76331037 2.268193e-38
2.0923717 -0.17812294 0.76774919 2.19458e-38
1.2860038 -0.16933805 0.76614296 3.2344505e-39
1.2910001 -0.16974705 0.76671231 3.4181257e-39
1.3480029 -0.15136838 0.76085675 3.1404528e-39
2.03457 -0.15371312 0.76248282 2.268193e-38
2.0791359 -0.15899961 0.7667712 2.1945444e-38
1.3710035 -0.14100346 0.76329792 2.1241176e-39
2.0274787 -0.1356321 0.76180571 2.268193e-38
1.3750042 -0.12877662 0.76372248 2.3063355e-39
2.0606782 -0.12182996 0.76541692 2.2037639e-38
1.3565049 -0.1148789 0.76175892 5.5320979e-39
2.0153728 -0.11741056 0.76075244 2.2589734e-38
2.0514522 -0.10345404 0.76473981 2.19458e-38
2.0102484 -0.099741131 0.76022577 2.2774125e-38
2.0462303 -0.085392267 0.76436365 2.2129836e-38
1.3590001 -0.077629998 0.76202428 2.2126811e-39
1.3600138 -0.07782805 0.76213044 1.7524218e-39
2.0310042 -0.067048118 0.76323515 2.1945444e-38
1.2720169 -0.05001732 0.7645489 3.0431606e-39
1.994508 -0.056294668 0.76011294 3.5048703e-39
1.271 -0.049844295 0.76443499 3.1357192e-39
2.0217834 -0.049105536 0.76255804 2.1945444e-38
1.546019 -0.031230209 0.76799655 2.3055942e-39
1.5500001 -0.031129422 0.76839018 2.0293688e-39
2.0125642 -0.031302229 0.76188093 2.1946163e-38
1.5465102 -0.017251946 0.76804572 1.752419e-39
2.0043471 -0.013650954 0.76127905 2.1853964e-38
1.547511 -0.0033520004 0.76814413 1.9368103e-39
1.9961315 0.003876511 0.76067722 2.1761771e-38
1.5340118 0.010478439 0.7668156 2.0290045e-39
1.5040126 0.023875436 0.76386327 1.8449734e-39
1.4265132 0.035794355 0.76918852 2.7669325e-39
1.5085139 0.051152207 0.76430607 2.0290059e-39
1.9343659 0.053823903 0.76994538 2.286632e-38
1.5145147 0.06498111 0.76489651 2.4903456e-39
1.9260734 0.070106685 0.76911581 2.2774125e-38
1.5640156 0.080840841 0.76976794 2.0290059e-39
1.9127153 0.086052969 0.76787144 2.2774125e-38
1.557 0.094597638 0.76907903 2.9509622e-39
1.5600325 0.094583206 0.76937425 3.0431578e-39
0.40944135 0.10916509 0.76086402 2.1475821e-38
0.42677376 0.10203707 0.76067311 2.341769e-38
1.9094385 0.10221067 0.76745665 2.2958873e-38
0.34893337 0.1169996 0.76434422 1.5846113e-38
0.35565045 0.11169457 0.7665391 1.9259156e-38
1.9263834 0.11932968 0.76870102 2.2958871e-38
0.29374284 0.12616605 0.76531643 4.7945175e-39
0.28399855 0.13348006 0.76371872 4.7019603e-39
0.31083587 0.13990453 0.76358831 2.2221308e-38
1.9423409 0.13661991 0.76986247 2.203656e-38
0.26746923 0.14955749 0.76408833 3.9643995e-39
0.27275121 0.14393863 0.7646805 4.701247e-39
0.29773811 0.14779657 0.76179135 8.572739e-39
0.26471746 0.15796921 0.76563537 6.451878e-39
0.27313155 0.1563306 0.76657677 7.2809226e-39
0.28692833 0.15260155 0.76480293 6.8206577e-39
0.24398574 0.16803454 0.76281697 8.2939885e-39
0.25505513 0.16244875 0.76459098 8.4791015e-39
1.8870398 0.16127673 0.76853508 1.7150178e-38
1.8900001 0.16171035 0.76878399 1.7150898e-38
0.23836449 0.17788523 0.76573104 6.1742065e-39
0.24265707 0.17444187 0.76239264 5.4366429e-39
1.8910209 0.17825001 0.7688669 1.7703718e-38
0.23616949 0.18561611 0.76593697 3.9622289e-39
0.24322566 0.18923265 0.76264608 3.9618701e-39
0.23630348 0.19643342 0.7679469 3.6860035e-39
0.24364263 0.19600372 0.76242799 5.9887349e-39
1.8835218 0.19413531 0.76824474 1.8441287e-38
0.23723237 0.20611671 0.76640755 7.0032497e-39
1.878045 0.20999895 0.76778847 1.8901909e-38
0.22677374 0.21781933 0.76576197 6.3607656e-39
0.23321614 0.21440116 0.76350403 7.3741986e-39
1.8770001 0.21010615 0.7677055 1.881079e-38
0.22233194 0.22119963 0.76121581 4.6083255e-39
1.8690002 0.2257134 0.7670418 1.8994461e-38
1.8700467 0.22561482 0.76712477 1.9086653e-38
1.8610241 0.24109471 0.76637816 1.9178852e-38
1.8545251 0.25663772 0.76583886 1.9270692e-38
0.27288052 0.26899529 0.76791036 4.148418e-39
0.2236338 0.27811602 0.76379991 2.1115315e-38
0.28094357 0.27841738 0.76486188 9.4064542e-39
1.8440259 0.27156138 0.7649678 1.9455083e-38
0.22753032 0.28657648 0.76459265 2.1760685e-38
0.28541219 0.28252161 0.76061046 1.3741091e-38
0.29115814 0.28912807 0.76233864 2.0746528e-38
1.8380268 0.28694087 0.76447004 1.9547277e-38
0.22945492 0.29273343 0.76404274 2.1944715e-38
1.8310275 0.3020823 0.76388931 1.9639831e-38
1.8205284 0.31658041 0.76301825 1.963983e-38
1.8140292 0.33155844 0.76247907 1.9823862e-38
1.8055298 0.34609911 0.76177382 1.982386e-38
1.7980307 0.36068448 0.76115167 1.9732024e-38
1.7890629 0.3747797 0.76040506 1.9824221e-38
1.7900002 0.37515995 0.76048803 2.0008612e-38
1.7180001 0.49897987 0.76971906 1.9917133e-38
1.711539 0.5124166 0.76912963 2.0192644e-38
1.7045397 0.52571249 0.76849484 2.0100807e-38
1.6970001 0.5388549 0.7678147 2.0285197e-38
1.7000808 0.53949851 0.76808673 2.0193004e-38
1.6845418 0.56524241 0.76668108 2.0284838e-38
1.6765425 0.57781267 0.76595557 2.0192283e-38
1.6720433 0.59133607 0.76554751 2.0008254e-38
1.666544 0.60447443 0.76504874 2.0100448e-38
1.6550446 0.6155889 0.7640059 2.0100447e-38
1.6480904 0.62792373 0.76337111 2.0284481e-38
1.6500001 0.6287666 0.76355243 2.0284481e-38
1.6430459 0.6410085 0.76291764 2.0100448e-38
1.6380932 0.65383536 0.76246423 2.0192285e-38
1.6305473 0.66587955 0.76178408 2.0100088e-38
1.623548 0.67789865 0.76114929 2.0100089e-38
1.6180485 0.69036376 0.76065052 2.0100089e-38
1.6110001 0.70226628 0.76001573 1.9915698e-38
1.5620544 0.79586434 0.76957113 1.9915697e-38
1.556555 0.80742788 0.76902986 1.9730944e-38
1.5490001 0.81808221 0.76829177 1.9731304e-38
1.5501111 0.81836653 0.76839018 1.9546913e-38
1.5440562 0.82960612 0.76779968 1.9362882e-38
1.5355568 0.8394922 0.76696324 1.9085936e-38
1.4690572 0.84813273 0.76041883 4.5204795e-39
1.4830568 0.84162962 0.76179659 5.2576901e-39
1.5315573 0.8513974 0.76656955 1.585874e-38
1.4280001 0.87992227 0.76934773 4.3357267e-39
1.3970606 0.91456938 0.76605749 4.0595e-39
1.3891222 0.92273366 0.76520836 3.8754633e-39
1.3651317 1.0092013 0.7626611 1.8460594e-39
1.3660666 1.0224063 0.76276726 2.3992374e-39
1.3605671 1.0313894 0.76218349 2.6758243e-39
1.3580676 1.0422316 0.76191813 2.7680199e-39
1.3650001 1.0593411 0.7626611 2.8605757e-39
1.3541034 1.0619372 0.76351023 1.761332e-38
1.3731376 1.0644373 0.76351023 3.0449655e-39
1.3399076 1.077808 0.76202428 1.8626754e-38
1.347997 1.0705795 0.76287341 1.8812224e-38
1.38557 1.0853674 0.76483691 2.3084795e-39
1.3447143 1.0935987 0.76255494 1.8625678e-38
1.3830001 1.109058 0.76457155 1.7150542e-38
1.3910708 1.101716 0.76542068 1.7521839e-38
1.3574543 1.1148741 0.76393473 1.8349091e-38
1.3791436 1.1187953 0.76414698 1.7058347e-38
1.3851427 1.1102638 0.76478386 1.7151257e-38
1.3755724 1.1290457 0.76377559 1.7057985e-38
1.381 1.1203208 0.7643593 1.7150542e-38
1.3671083 1.1350149 0.76393473 1.7611163e-38
1.3731458 1.139793 0.76351023 1.6966151e-38
1.3630949 1.1442009 0.76457155 1.7795915e-38
1.3538623 1.1631107 0.76361632 2.9502489e-39
1.3287736 1.1701849 0.7609629 2.3992458e-39
1.3477602 1.1713892 0.76297951 2.3985073e-39
0.66246718 -0.78524208 0.77854723 3.7807215e-39
0.70924538 -0.70636833 0.77794498 2.3052439e-39
0.75594604 -0.70253921 0.77574426 1.8446146e-39
0.74544686 -0.69517148 0.77381861 1.9368103e-39
0.75100005 -0.69896358 0.7748273 2.0290059e-39
0.73403853 -0.68180823 0.77394497 2.3977884e-39
0.74700004 -0.68845546 0.77409375 1.5680306e-39
0.75 -0.68278867 0.7746439 1.3836421e-39
0.74647433 -0.67657512 0.77400202 1.5687522e-39
0.77833992 -0.67270863 0.77941215 3.5041472e-39
0.72649384 -0.66790456 0.7723639 2.1215715e-39
0.74094975 -0.66905761 0.77299333 1.5680334e-39
0.75072515 -0.66591787 0.77478147 2.3052439e-39
0.72825301 -0.65632337 0.77245176 2.582914e-39
0.75322556 -0.65593058 0.77523994 4.1477215e-39
0.76110303 -0.6535033 0.77629447 9.1277275e-39
0.7346983 -0.64790624 0.77341795 1.1708492e-38
0.75672626 -0.64654076 0.77588183 1.0694694e-38
0.76100004 -0.64335877 0.77666122 4.1488104e-39
0.73556364 -0.6399284 0.77341795 6.1771086e-39
0.74206239 -0.63565493 0.77447194 1.0234081e-38
0.75591898 -0.63853657 0.77537751 8.8507819e-39
0.76497656 -0.6380924 0.77739483 1.0047893e-38
0.7737267 -0.63368249 0.77702755 9.4972359e-39
0.74481213 -0.62885034 0.77482331 6.3618656e-39
0.75408947 -0.62599176 0.77572298 1.3737873e-38
0.76172763 -0.62290561 0.77647781 1.4568001e-38
0.77672708 -0.62560731 0.77359897 8.8515091e-39
0.78495431 -0.62668228 0.77306658 1.1893962e-38
0.75785297 -0.61990339 0.77693129 5.6250208e-39
0.76301014 -0.61519098 0.77723157 1.3369814e-38
0.78395522 -0.61807531 0.77289093 7.5622025e-39
0.76602191 -0.6061064 0.7773031 1.0696499e-38
0.77544838 -0.60005683 0.7750898 1.1896477e-38
0.78537554 -0.59404844 0.77289093 9.6830607e-39
0.696073 -0.54033554 0.77225977 9.5912294e-39
1.9325479 -0.45442131 0.7743423 2.7669395e-39
0.71497428 -0.44241434 0.77568042 6.3568419e-39
0.72399563 -0.44982928 0.77556086 9.6798475e-39
0.71398759 -0.43445617 0.77548933 1.4013729e-38
0.73100007 -0.434486 0.77873832 2.6747369e-39
1.9166785 -0.43380716 0.77284902 3.505222e-39
0.71897566 -0.42925149 0.77644491 2.7669325e-39
0.72498822 -0.4243241 0.77759165 2.8584078e-39
0.71997726 -0.41468218 0.776636 3.411946e-39
1.9086572 -0.4150241 0.77201939 3.8743604e-39
0.70321345 -0.4003194 0.7707926 4.3339079e-39
1.8976624 -0.39583516 0.7709409 2.9516797e-39
1.904402 -0.38006613 0.77135575 4.5190068e-39
1.9081885 -0.36370662 0.77152163 5.0732582e-39
1.9208711 -0.34878778 0.77243418 3.1367954e-39
0.75196064 -0.33111411 0.77043158 1.7695776e-38
1.9197266 -0.33151844 0.77218533 2.5836216e-39
1.9403528 -0.3175537 0.77376157 2.952051e-39
0.76904517 -0.30807033 0.77297878 2.3417331e-38
1.9689357 -0.3044199 0.77600145 3.2286379e-39
1.9657065 -0.28771138 0.77525485 7.2852596e-39
1.9785174 -0.27222383 0.77633333 2.1852531e-38
2.01336 -0.25919917 0.77923691 2.1945445e-38
0.8149125 -0.23295756 0.77128434 2.3326213e-38
1.1834984 -0.23562089 0.77662158 5.6513877e-39
0.82215095 -0.22186407 0.77229202 2.3325853e-38
1.1979977 -0.22686541 0.77849668 3.8946302e-39
1.2010001 -0.22720294 0.77888465 3.8031535e-39
1.2044995 -0.21656199 0.77933717 3.4300493e-39
1.2090001 -0.20594193 0.77991915 4.2619708e-39
1.2370017 -0.17537379 0.77205181 3.8892198e-39
1.2660022 -0.16706291 0.7755779 3.5168205e-39
1.3240048 -0.16134791 0.77046973 2.9564189e-39
1.3310001 -0.16191894 0.77126676 3.0493418e-39
1.338003 -0.15042117 0.77206385 3.050069e-39
1.3580036 -0.13987254 0.77434105 3.1408143e-39
2.0274787 -0.1356321 0.77931988 2.286632e-38
1.3755043 -0.12881634 0.77633363 2.3074215e-39
1.3665049 -0.11559407 0.77530891 1.207799e-38
2.0163727 -0.11746636 0.7782414 2.286632e-38
1.3390001 -0.1012574 0.7721777 1.7607923e-38
1.3400112 -0.10146875 0.77229154 1.8438043e-38
2.009248 -0.099693045 0.77749473 2.286632e-38
1.3315063 -0.088614665 0.77132368 9.4954226e-39
2.0011065 -0.082017794 0.77666515 2.286632e-38
1.3615069 -0.077825621 0.77473956 3.2261128e-39
1.9909437 -0.064431012 0.77566963 2.2774125e-38
1.2790167 -0.050247472 0.7771585 2.5829084e-39
1.2800001 -0.050139233 0.77728009 2.3988758e-39
1.9890162 -0.056265611 0.77699697 4.3349869e-39
1.6040173 -0.046586379 0.77370435 3.1357164e-39
1.9827672 -0.047078863 0.77484 2.286632e-38
2.0135646 -0.031322714 0.77948576 2.2037639e-38
1.9775859 -0.029932572 0.77425933 2.286632e-38
1.5280205 -0.017158249 0.77996141 2.0290087e-39
1.9663641 -0.012836201 0.77318084 2.286632e-38
2.0043471 -0.013650954 0.77873915 2.2037995e-38
1.957132 0.0040562768 0.7722683 2.286632e-38
1.9951316 0.0038815327 0.77799249 2.2130191e-38
1.9498944 0.020791011 0.77152163 2.2774125e-38
1.9819174 0.021263897 0.776914 2.1946164e-38
1.9406272 0.0373604 0.77060908 2.268193e-38
1.9777051 0.03853913 0.77658218 2.1853248e-38
1.5150139 0.051341213 0.77858162 1.9371732e-39
1.9634949 0.055570576 0.77542078 2.1945444e-38
1.5070293 0.064621955 0.77773255 2.3977954e-39
1.5100001 0.06489832 0.77805096 2.2137601e-39
1.9532866 0.072489075 0.77459115 2.2037639e-38
1.9630735 0.089926094 0.77542078 2.1853967e-38
0.31358361 0.10639508 0.77685523 1.954079e-38
0.37003219 0.10750201 0.77560627 2.2124069e-38
1.5730171 0.1094558 0.77065361 4.1505942e-39
0.31858927 0.11544989 0.77823776 7.92522e-39
0.3386682 0.1150957 0.77648222 1.4650092e-38
0.34688029 0.11661881 0.77033186 1.5017433e-38
0.35461095 0.11370298 0.77730739 1.8704907e-38
0.36130342 0.11048904 0.77956462 2.1381825e-38
0.29657865 0.12581488 0.77528578 5.2544152e-39
0.30354235 0.12046511 0.77490848 5.5306406e-39
0.28640768 0.13405253 0.77628249 5.9923446e-39
0.2617422 0.14723852 0.77582455 2.1667053e-38
0.2736553 0.14438012 0.77504557 4.7941587e-39
0.25115326 0.15442161 0.7750423 8.6653018e-39
0.26321602 0.15375234 0.77496469 6.4533227e-39
0.29012942 0.15660885 0.77642357 8.9422376e-39
0.30167365 0.15307681 0.77598697 1.3459476e-38
0.26201853 0.16547771 0.77097952 8.2943529e-39
0.247401 0.17496352 0.7737785 7.8340908e-39
0.23420389 0.18415914 0.77381462 6.8206591e-39
0.22995178 0.19789027 0.77512789 3.9633107e-39
0.23369531 0.19164814 0.77460927 4.3313715e-39
0.228532 0.20492798 0.77838564 7.2819988e-39
0.2326791 0.20654744 0.77555346 5.5306392e-39
0.23290586 0.21523717 0.77631575 6.9142995e-39
0.22633438 0.22102477 0.77573204 5.8075932e-39
0.23232675 0.22168329 0.77992272 5.9927075e-39
0.221784 0.26586178 0.77608007 2.1483737e-38
0.22864713 0.27705985 0.77594614 2.2036912e-38
0.27607521 0.27062809 0.77645659 3.8739919e-39
0.28175586 0.27848735 0.77379394 1.3463786e-38
0.22855447 0.28461382 0.77122962 2.2129109e-38
0.23503417 0.28630665 0.77744722 2.2036914e-38
0.23446736 0.29174876 0.77344251 2.1944715e-38
1.8310001 0.30218279 0.77996653 1.9824223e-38
1.8220283 0.31680971 0.77915037 1.9916417e-38
1.8130291 0.33139783 0.77833414 1.9732027e-38
1.80703 0.34635174 0.77779007 2.0008254e-38
1.7975308 0.36059642 0.77692854 1.9916415e-38
1.7875316 0.37460208 0.77602172 2.0008612e-38
1.7825322 0.38941091 0.77556825 2.0008612e-38
1.772033 0.40304613 0.77461606 2.0100807e-38
1.7625337 0.41672593 0.7737546 2.0100807e-38
1.7550346 0.43068832 0.77307445 2.0008612e-38
1.7500353 0.44509089 0.77262098 2.0192645e-38
1.7390001 0.45812988 0.77162349 2.0285199e-38
1.7440721 0.45909011 0.77207685 2.0284481e-38
1.7350368 0.47247392 0.77126074 2.0193002e-38
1.728 0.48620901 0.77062589 2.0285199e-38
1.7300751 0.48651069 0.77080727 2.0285197e-38
1.7220765 0.49980506 0.77008182 2.0100808e-38
1.665544 0.60415906 0.77975667 2.0377395e-38
1.6580446 0.61655831 0.77901858 2.0192641e-38
1.6515453 0.62917233 0.7783789 2.0284478e-38
1.6460459 0.64202434 0.77783763 2.0192644e-38
1.6375467 0.65375209 0.77700114 2.0008252e-38
1.6330473 0.6667648 0.77655828 2.0192281e-38
1.624048 0.67807961 0.77567255 2.0100449e-38
1.6185486 0.6905486 0.77513134 2.0100089e-38
1.6105492 0.70198911 0.77434409 2.0100089e-38
1.6075499 0.71523106 0.77404881 2.0007891e-38
1.5990001 0.72635424 0.77321231 2.0100442e-38
1.6001011 0.72657126 0.77331072 2.0100442e-38
1.5925512 0.73797113 0.77257264 1.9916053e-38
1.5820525 0.76211894 0.77153933 2.0007892e-38
1.575053 0.77332932 0.77085042 1.9915695e-38
1.5675536 0.78421569 0.7701124 1.9915695e-38
1.4900577 0.85849369 0.7759282 4.4282867e-39
1.5065575 0.85304213 0.77767944 5.6250278e-39
1.381 0.99410903 0.7769599 3.138257e-39
1.3861318 1.0096638 0.77752924 5.5349776e-39
1.3785663 1.0177131 0.77667522 2.0300947e-39
1.3760669 1.0287333 0.77639055 1.9378991e-39
1.3691347 1.0367575 0.77559352 2.7676598e-39
1.3700001 1.0375487 0.77570742 2.76838e-39
1.368068 1.0487131 0.77547967 2.8612945e-39
1.3531113 1.0612923 0.77593517 1.899554e-38
1.3870695 1.0736953 0.77764308 1.3865246e-39
1.3945704 1.0913403 0.77849704 1.7889542e-38
1.3655437 1.10763 0.77741534 1.8809713e-38
1.3840001 1.1097372 0.77730149 1.7703716e-38
1.3925709 1.1027231 0.77826929 1.7335294e-38
1.3861427 1.1109427 0.77752924 1.7519325e-38
1.3713392 1.1243367 0.77809852 1.8625678e-38
1.3815719 1.1205883 0.77701682 1.7427129e-38
1.3673906 1.1351434 0.77653289 1.7519688e-38
1.3785725 1.1311296 0.77667522 1.7150541e-38
1.3621033 1.1435096 0.77707374 1.7796994e-38
1.3579823 1.1533409 0.7766183 1.770336e-38
1.3528708 1.1624039 0.77604902 3.3193944e-39
1.3477602 1.1713892 0.77547967 3.3204622e-39
1.3446331 1.181742 0.77513814 2.5839874e-39
0.76494551 -0.70882463 0.78523642 2.0290059e-39
0.74500006 -0.69477397 0.78141403 2.0290059e-39
0.75494695 -0.69406378 0.7833252 1.7524204e-39
0.73684025 -0.68379891 0.78252983 2.3059557e-39
0.74622428 -0.6821928 0.78165293 1.5683893e-39
0.7335043 -0.67282349 0.78571421 2.3056012e-39
0.74894917 -0.67445892 0.78217852 1.4772755e-39
0.75550002 -0.67487073 0.78342074 1.9371802e-39
0.73343533 -0.66418588 0.78552306 2.3985227e-39
0.74895 -0.66672838 0.78989649 1.7527876e-39
0.75322503 -0.66370177 0.78299069 3.3193944e-39
0.76321542 -0.6626516 0.78447193 3.5041528e-39
0.73196012 -0.65460312 0.78106272 2.9506245e-39
0.74895084 -0.65899777 0.78989649 3.780374e-39
0.75397557 -0.65448487 0.7831341 3.9640491e-39
0.76095164 -0.65126705 0.78447193 7.927385e-39
0.73747528 -0.64548767 0.78188801 7.5589683e-39
0.7570051 -0.64581907 0.78351629 7.5604004e-39
0.76295233 -0.64471656 0.78485417 1.2445339e-38
0.74625558 -0.63408941 0.78326344 1.613496e-38
0.7639119 -0.63642406 0.78479052 7.4689348e-39
0.77347666 -0.63551617 0.78686094 4.5175915e-39
0.78097683 -0.63219488 0.78829432 6.1774743e-39
0.75647181 -0.62336332 0.78491396 1.0142609e-38
0.7607199 -0.62227386 0.78408968 4.3350009e-39
0.78672713 -0.62769806 0.78338647 8.2057726e-39
0.76811999 -0.61601341 0.78598994 9.8660226e-39
0.78372771 -0.61788219 0.78282285 1.0050764e-38
0.76527554 -0.60711354 0.78619772 1.4384325e-38
0.77151549 -0.605546 0.786192 8.3926876e-39
0.77791822 -0.59757787 0.78743428 9.1302526e-39
0.7858547 -0.59235245 0.78496516 1.0696852e-38
0.79530001 -0.58783889 0.78271323 6.1764052e-39
0.71615601 -0.4340091 0.78150958 8.9397559e-39
0.73548746 -0.43652016 0.78721201 2.5832643e-39
0.73297584 -0.42784685 0.78671491 2.5821797e-39
1.9308523 -0.29982299 0.78921646 7.9306318e-39
2.0203679 -0.29392335 0.78014946 3.1364479e-39
2.0748599 -0.28303254 0.78454638 2.2405343e-38
2.0847492 -0.26604611 0.78521001 2.2589734e-38
2.0341759 -0.24404594 0.78097904 2.1853248e-38
2.0787485 -0.24718231 0.78454638 2.2497539e-38
1.1934983 -0.23726457 0.78906679 7.222672e-39
2.1090617 -0.2342709 0.78720105 2.1853967e-38
2.0687551 -0.22803378 0.7835508 2.2589734e-38
2.107836 -0.21589652 0.78711808 2.2037641e-38
2.0607328 -0.20925841 0.78272122 2.2406422e-38
1.2165005 -0.19565238 0.78088897 6.8477728e-39
2.0576766 -0.19106974 0.78230643 2.2498618e-38
2.0955977 -0.19654608 0.78612256 2.1945444e-38
1.2410011 -0.1873834 0.78405714 5.3798454e-39
1.2570015 -0.17773271 0.7861262 5.4734816e-39
2.0456359 -0.17224814 0.78114498 2.2498618e-38
2.088367 -0.17779332 0.78554183 2.2037639e-38
1.2655021 -0.16700783 0.78722537 5.2869295e-39
1.3150048 -0.1604252 0.78153569 3.4188403e-39
1.322 -0.1609972 0.78238678 3.3266517e-39
1.341503 -0.15075266 0.78475779 2.4054199e-39
2.0355685 -0.15378432 0.78014946 2.2590813e-38
2.076133 -0.15877558 0.78454638 2.2129835e-38
2.0679045 -0.14021128 0.78388262 2.2129835e-38
1.3490072 -0.1391639 0.78566968 3.6057792e-39
1.35 -0.13910225 0.78579128 3.697965e-39
1.3720043 -0.12853892 0.78846622 2.0337353e-39
2.0626802 -0.12194833 0.78346789 2.2405343e-38
1.3755049 -0.11623771 0.78889179 2.9517133e-39
1.3535056 -0.10225602 0.78621686 8.3898037e-39
2.0504518 -0.1034026 0.78247231 2.2222031e-38
1.3335063 -0.088726744 0.7837851 3.0431676e-39
1.357507 -0.077632368 0.78670323 2.120847e-39
1.3580077 -0.065213397 0.78676403 3.5037829e-39
2.0320048 -0.067084104 0.78097904 2.2129835e-38
2.0207829 -0.049077291 0.78006649 2.2037639e-38
1.5330095 -0.030919699 0.78049207 3.87328e-39
1.5310001 -0.017018903 0.78027982 2.0290059e-39
1.5390218 -0.0034207217 0.78112888 2.0290059e-39
1.5400001 -0.0032533316 0.78123504 2.1212015e-39
1.9581375 0.0040543396 0.78921646 2.2774125e-38
1.529 0.010533113 0.78006756 2.2119566e-39
1.5320234 0.010382427 0.78038597 2.0290045e-39
1.9509008 0.020796778 0.78840029 2.286632e-38
1.432013 0.035911664 0.78276688 3.0435208e-39
1.9426417 0.037387297 0.78749341 2.2774125e-38
1.9343659 0.053823903 0.78658652 2.286632e-38
1.9280915 0.070164353 0.78586107 2.286632e-38
1.5630156 0.080796286 0.78367621 2.0293688e-39
1.9268528 0.086564347 0.78558904 2.2866677e-38
1.5580163 0.094564304 0.78314555 3.043162e-39
0.31203625 0.11685784 0.78556234 6.0834626e-39
0.33148256 0.11376296 0.78701103 1.6497974e-38
0.35409811 0.11361165 0.78382504 1.9259523e-38
0.29491431 0.12901786 0.78288513 5.4398841e-39
0.30177444 0.12271284 0.78363609 6.1760114e-39
0.28522059 0.13794608 0.78468037 5.3476955e-39
0.29187575 0.13346104 0.78620654 5.8086708e-39
0.2666072 0.14584021 0.78109187 1.3461274e-38
0.27636474 0.1446301 0.78657722 6.1767359e-39
1.860019 0.14301354 0.78259641 1.7980297e-38
0.23860005 0.158686 0.78778791 2.2405696e-38
0.26572675 0.15899466 0.78367853 4.3335379e-39
0.23705827 0.16208267 0.78910816 2.2036196e-38
0.25907797 0.16061027 0.78591931 1.0417019e-38
0.26481318 0.16680089 0.78205001 4.7945203e-39
0.27004081 0.16370425 0.78598201 8.2957976e-39
0.28352082 0.16541997 0.78469932 8.7567702e-39
0.29007739 0.16084914 0.78065723 8.4805448e-39
1.88802 0.16145577 0.78513563 1.7243094e-38
0.25487232 0.17734772 0.78441316 8.0195681e-39
0.2619198 0.17352495 0.78303158 8.1106833e-39
1.8925208 0.17837492 0.78554368 1.7980304e-38
0.24679485 0.18361294 0.78335547 7.9273738e-39
0.25280717 0.18264653 0.78760791 8.3883506e-39
0.23602866 0.1970927 0.78428394 4.6083199e-39
0.24317805 0.19311312 0.78589272 6.5433506e-39
1.8855217 0.19431728 0.78490889 1.8717874e-38
0.23285669 0.20565936 0.78575492 7.0976076e-39
1.8760451 0.20980164 0.78404737 1.9178855e-38
0.2299322 0.21307214 0.78462499 7.8369747e-39
0.23486088 0.21891607 0.7846998 6.6384357e-39
1.8790002 0.21030372 0.78431946 1.9178852e-38
0.22576782 0.22644563 0.7830416 5.0700198e-39
0.23481403 0.22273466 0.78660423 6.6373567e-39
1.8680234 0.22550438 0.78332186 1.9363244e-38
0.22465825 0.23537031 0.786385 4.5168404e-39
0.22452068 0.24658422 0.78638303 1.0512443e-38
1.8615241 0.24115181 0.78273243 1.945544e-38
0.22591995 0.25480378 0.78699231 2.1853238e-38
1.8535252 0.2565158 0.78200698 1.9731668e-38
0.2238172 0.26316673 0.7805801 2.1391541e-38
0.23176737 0.26727653 0.78624487 2.2036911e-38
0.23219438 0.27322951 0.78581637 2.2036914e-38
0.27501032 0.27008381 0.78537023 1.6414767e-38
0.28074038 0.27654409 0.78175604 1.8443434e-38
1.845026 0.27169108 0.78123617 1.9823862e-38
0.23456116 0.28410393 0.78107548 2.1944715e-38
0.29074508 0.28531995 0.78145975 2.2497889e-38
1.8380268 0.28694087 0.78060132 1.9732024e-38
1.8330551 0.30227214 0.78014791 1.9824221e-38
1.7630336 0.41682944 0.7893517 2.0100807e-38
1.7550346 0.4306882 0.78856444 2.0193001e-38
1.7470001 0.44451913 0.78777719 2.0193002e-38
1.7500705 0.44499484 0.78807241 2.0285199e-38
1.743036 0.4589555 0.7873835 2.0285199e-38
1.7355368 0.47259289 0.78664541 2.0193002e-38
1.7280376 0.4861142 0.78590733 2.0285197e-38
1.7215383 0.49977279 0.78526771 2.0193004e-38
1.715039 0.513331 0.78462803 2.0285199e-38
1.7045397 0.52571249 0.78359473 2.0377392e-38
1.6955404 0.53834665 0.782709 2.0377395e-38
1.6910411 0.55212152 0.78226614 2.0284836e-38
1.6845418 0.56524235 0.78162646 2.0285199e-38
1.6775424 0.57811266 0.78093755 2.0284482e-38
1.6720433 0.59133613 0.78039634 2.0284479e-38
1.6185486 0.6905486 0.78956676 2.0192285e-38
1.6090983 0.70133477 0.78855848 2.0100086e-38
1.6110001 0.70226628 0.78877079 2.0192285e-38
1.6070499 0.71503854 0.78834623 2.0007894e-38
1.5991011 0.72617853 0.78749716 2.0007894e-38
1.6000001 0.7267471 0.78760326 1.9915695e-38
1.5925512 0.73797113 0.78680724 2.0008251e-38
1.5851035 0.74907994 0.78601122 1.9915695e-38
1.5870001 0.75007081 0.78622347 2.000861e-38
1.5765531 0.77396488 0.78510904 1.9915695e-38
1.5690538 0.78486288 0.78431302 2.0007889e-38
1.5630543 0.79630357 0.78367621 1.98235e-38
1.557555 0.80787492 0.7830925 1.9731304e-38
1.5490001 0.81808221 0.78219032 1.9731307e-38
1.5501111 0.81836653 0.78229642 1.9546913e-38
1.5440562 0.82960612 0.7816596 1.954727e-38
1.5360001 0.8398118 0.78081048 1.9362521e-38
1.5371133 0.84011298 0.78091663 1.9547269e-38
1.5325574 0.85187531 0.78043902 1.9084861e-38
1.4901168 0.87187642 0.78937095 7.5632941e-39
1.3801314 1.0059609 0.78943896 6.272907e-39
1.3791326 1.0179496 0.78931737 2.2148531e-39
1.3830001 1.0206014 0.78980374 2.2148531e-39
1.381 1.1203208 0.7895605 1.7427129e-38
1.3691455 1.136984 0.78810143 1.6966151e-38
1.3775725 1.130435 0.78913498 1.7518966e-38
1.3640865 1.1448923 0.78992528 1.8072862e-38
1.376 1.1420513 0.78895259 1.7150182e-38
1.3599654 1.1547393 0.78943896 1.7795917e-38
1.3367033 1.1759634 0.78664243 2.8602155e-39
1.3487515 1.1721038 0.78810143 3.5963316e-39
0.81131536 -0.87815893 0.79995227 3.8729213e-39
0.73951858 -0.83529907 0.79421902 3.8729255e-39
0.6826641 -0.80305612 0.79049301 4.3338953e-39
0.67807382 -0.79900742 0.79720128 4.241701e-39
0.76994503 -0.71231645 0.79407221 2.028287e-39
0.75722289 -0.70337009 0.79737759 1.8446146e-39
0.75647348 -0.69505751 0.79526997 1.6602276e-39
0.76097327 -0.6981653 0.79618406 1.5683893e-39
0.73964185 -0.68578953 0.79116106 2.3974353e-39
0.75489062 -0.68488646 0.79430294 1.5683935e-39
0.73397166 -0.67315137 0.79785025 2.2137643e-39
0.75397456 -0.67519367 0.7954154 1.5687536e-39
0.74045205 -0.66904724 0.79904336 2.6754655e-39
0.75647497 -0.66584158 0.79722071 3.2279176e-39
0.73871595 -0.65491438 0.79437202 4.0569721e-39
0.7563206 -0.65704572 0.79501462 4.7026932e-39
0.75999999 -0.65053815 0.7998867 2.3985171e-39
0.74400616 -0.64555418 0.79520547 7.6518842e-39
0.75674713 -0.64763844 0.79123867 5.0711184e-39
0.7653017 -0.64223313 0.79314423 8.666392e-39
0.74534839 -0.63781583 0.79530108 5.3473563e-39
0.754673 -0.63455129 0.79569185 8.3905282e-39
0.76393551 -0.63983035 0.79248148 3.966217e-39
0.77772653 -0.63616431 0.79561329 8.483084e-39
0.78195369 -0.63285172 0.79645836 4.9782123e-39
0.79400003 -0.63204348 0.79077888 4.8867327e-39
0.75885206 -0.62923902 0.79364562 1.3738958e-38
0.7619065 -0.62661529 0.79504663 1.2724087e-38
0.78395438 -0.6260767 0.79685605 1.2539693e-38
0.79000008 -0.62962186 0.79804909 1.2816634e-38
0.75966412 -0.6177423 0.79168606 1.3093589e-38
0.76666665 -0.61550379 0.79593176 9.7745458e-39
0.76716161 -0.60827136 0.79479241 1.4016621e-38
0.77448952 -0.60341001 0.79466879 1.0236597e-38
0.7853756 -0.59405994 0.79685605 8.7607442e-39
0.79530001 -0.58783889 0.79077888 5.6257243e-39
1.9766999 -0.44612679 0.79529238 8.3905156e-39
1.9618361 -0.42551458 0.7937507 5.8093953e-39
1.9774984 -0.41094777 0.79502034 3.5037857e-39
1.9544677 -0.35434666 0.79239047 3.0435208e-39
2.0155776 -0.32880998 0.79765022 5.0714729e-39
2.0273831 -0.31270444 0.79855704 7.8391397e-39
2.044163 -0.29710868 0.79991734 1.7427135e-38
1.9486768 -0.28538975 0.79084879 2.2036562e-38
1.976514 -0.27196622 0.79338801 2.1945444e-38
1.2024988 -0.22750413 0.79030013 7.0368416e-39
1.2089994 -0.21723212 0.79119092 5.8383013e-39
1.2275 -0.20855331 0.79372615 4.8205536e-39
1.2450001 -0.1993863 0.79612434 3.9900713e-39
2.054687 -0.19081004 0.79982668 2.2774125e-38
1.2570009 -0.18939441 0.79776883 4.9145499e-39
1.2670014 -0.17891218 0.79913926 5.4727627e-39
2.0466335 -0.17232701 0.7989198 2.2774125e-38
1.2725022 -0.16777933 0.7998929 5.7504258e-39
1.2935026 -0.15814972 0.79084611 3.7022922e-39
1.345503 -0.15113157 0.79757047 2.8660365e-39
2.0365665 -0.15385549 0.79783159 2.2590813e-38
1.3520036 -0.13935065 0.79841101 3.421025e-39
2.0254805 -0.13550512 0.79665267 2.2958514e-38
1.3630084 -0.12790066 0.79983348 4.0689223e-39
2.0183723 -0.11757794 0.79583645 2.286632e-38
2.0112493 -0.099789247 0.79502034 2.286632e-38
1.3370063 -0.088922903 0.79647136 4.3342694e-39
2.0021079 -0.082058206 0.7940228 2.286632e-38
2.0432286 -0.085261136 0.7996453 2.2222031e-38
1.350507 -0.077294253 0.79821706 3.7803697e-39
1.9919462 -0.06446372 0.79293454 2.286632e-38
2.0320048 -0.067084104 0.79864776 2.2222031e-38
1.9817641 -0.047053859 0.79184633 2.286632e-38
2.0217834 -0.049105536 0.79774088 2.2222031e-38
1.5255095 -0.030789666 0.79341304 4.6112038e-39
2.0145652 -0.031343225 0.79710609 2.2129835e-38
1.9765821 -0.029915242 0.79121155 2.2774125e-38
1.5145103 -0.016944427 0.79216057 2.029366e-39
1.9673688 -0.012845827 0.79021394 2.2958514e-38
2.0043471 -0.013650954 0.7961992 2.2129835e-38
1.538011 -0.0033343004 0.79483628 2.0290059e-39
1.9971317 0.0038714837 0.79556441 2.1946163e-38
1.5240119 0.010419664 0.79324222 2.0290059e-39
1.4440124 0.023059033 0.79722059 2.8584092e-39
1.9849175 0.021272033 0.79447621 2.1946163e-38
1.4375131 0.036029026 0.79643023 2.950965e-39
1.9807047 0.038570479 0.79411346 2.1761771e-38
1.5185139 0.051443025 0.79261601 2.0297276e-39
1.9684943 0.055661518 0.79302526 2.185325e-38
1.5130147 0.064925797 0.7919898 2.5825426e-39
1.9582856 0.072618708 0.79211837 2.185325e-38
1.5630156 0.080796339 0.79768288 2.1219218e-39
1.9510777 0.089522123 0.79148358 2.1853966e-38
1.5635164 0.094851963 0.79773986 3.4119446e-39
0.31389979 0.11858301 0.79721451 7.4667586e-39
0.32269868 0.11624222 0.79646236 9.4939877e-39
0.33264929 0.11292775 0.79602826 1.9359643e-38
0.30429798 0.12588592 0.79460353 7.1908864e-39
0.31074551 0.12195942 0.79792464 6.7299096e-39
2.0285442 0.12457295 0.79438549 2.2958514e-38
0.2953797 0.13330808 0.79350603 6.3607712e-39
0.30021605 0.13152896 0.7995007 6.7291936e-39
0.2767542 0.14937992 0.7951501 6.1771002e-39
0.28229183 0.14402008 0.79279882 6.2689329e-39
1.8670189 0.14348787 0.79958653 1.733529e-38
0.26943353 0.15375699 0.79008031 4.5182907e-39
0.27337709 0.15611169 0.79790932 6.7317131e-39
0.26799366 0.16057478 0.79357165 5.6246397e-39
0.26742452 0.17317232 0.79419374 8.3883562e-39
0.28892481 0.17328094 0.7972154 8.6649361e-39
0.25223652 0.18840203 0.79135978 7.4663929e-39
0.27382532 0.1812952 0.79978752 7.6511443e-39
0.24362831 0.19716901 0.79190618 4.7005142e-39
0.25669363 0.19192719 0.79710245 8.3883464e-39
0.23649438 0.20804478 0.79293239 4.8860012e-39
0.23744258 0.2122723 0.79333985 7.5600304e-39
0.22924936 0.22797365 0.79008031 4.7005128e-39
0.23578568 0.22505094 0.79272866 6.2685671e-39
0.24277341 0.22609518 0.79751605 6.8228227e-39
1.868 0.22560686 0.79968488 1.9547278e-38
1.8700467 0.22561482 0.79988176 1.9455439e-38
0.23115733 0.23548661 0.79279184 8.021719e-39
0.2300584 0.24354465 0.79048777 5.7164668e-39
1.8635243 0.24138029 0.79924202 1.9639831e-38
0.23488952 0.25733909 0.79507703 2.2221302e-38
1.8545251 0.25663769 0.79835641 1.9823865e-38
0.23775361 0.26843542 0.79374731 2.2129109e-38
0.24080631 0.26415685 0.79883242 2.2221302e-38
0.27758163 0.26906058 0.79577261 1.9088087e-38
0.24061646 0.2796323 0.79110676 2.2221305e-38
1.845526 0.27175584 0.79747069 1.9824221e-38
1.8370266 0.28680331 0.7966342 1.9824221e-38
1.8240285 0.31711552 0.79535484 2.0008614e-38
1.8140292 0.33155844 0.79437071 2.010081e-38
1.80703 0.34635168 0.79368186 2.0193004e-38
1.7985307 0.36077249 0.79284537 2.0193004e-38
1.7875316 0.37460208 0.79176283 2.0100808e-38
1.7830322 0.38950676 0.79131997 1.9916415e-38
1.774533 0.40354449 0.79048347 2.0193004e-38
1.712539 0.51267779 0.79954362 2.0284839e-38
1.7080398 0.52665389 0.79906607 2.0377036e-38
1.6985404 0.53917682 0.79805779 2.0469588e-38
1.690541 0.5519793 0.79720867 2.0376673e-38
1.6840001 0.56518877 0.7965188 2.0377392e-38
1.6790426 0.57856262 0.79598808 2.046923e-38
1.6725433 0.59149009 0.79529822 2.0284839e-38
1.6650438 0.60400134 0.79450214 2.0284839e-38
1.6580446 0.61655831 0.79375923 2.0284838e-38
1.6520452 0.62933779 0.79312241 2.0100447e-38
1.6435459 0.64117777 0.79222023 2.0376676e-38
1.6360465 0.65323257 0.79142421 2.0192644e-38
1.626048 0.67880321 0.79036283 2.0192285e-38
1.5805525 0.76149487 0.79967546 2.0100088e-38
1.5750531 0.77332938 0.79904926 2.0007891e-38
1.5680537 0.78443134 0.79825222 1.9915697e-38
1.5635543 0.79652321 0.79773986 2.0007891e-38
1.5560549 0.80720448 0.79688585 1.9823858e-38
1.5490556 0.8179971 0.79608881 1.9823857e-38
1.5440562 0.82960612 0.79551947 1.973166e-38
1.5371133 0.84011298 0.79472244 1.9731304e-38
1.5400001 0.84169263 0.79506403 1.9547269e-38
1.5180578 0.85862708 0.79255909 1.9178136e-38
1.5310574 0.8511585 0.79403925 1.9454718e-38
1.499058 0.86293411 0.79039568 4.7959804e-39
1.4441215 0.91437095 0.79722059 4.1524047e-39
1.4350001 0.94878823 0.79612631 2.7680269e-39
1.4200001 0.95326501 0.79430246 4.8881733e-39
1.386 1.0098165 0.79016846 6.5484191e-39
1.3960655 1.0031747 0.79138434 3.6914293e-39
1.390568 1.0506016 0.79071558 3.41519e-39
1.4035692 1.0717223 0.79229629 1.7613317e-38
1.40257 1.0838616 0.7921747 1.7980302e-38
1.3797431 1.0914652 0.79174912 1.9179931e-38
1.3980001 1.0937399 0.79162753 1.7980303e-38
1.400141 1.094913 0.79187071 1.8164694e-38
1.3835546 1.1068666 0.79223549 1.899554e-38
1.392571 1.1027231 0.79095876 1.779591e-38
1.3794299 1.1169841 0.79174912 1.8994105e-38
1.3880715 1.1123774 0.79041165 1.7703712e-38
1.3782817 1.1290679 0.79162753 1.8809713e-38
1.3871442 1.1242894 0.79029006 1.7611521e-38
1.3701918 1.1363505 0.79065484 1.8533482e-38
1.3386856 1.177408 0.79931623 3.0438865e-39
0.81039405 -0.87738007 0.80855298 3.688886e-39
0.78459066 -0.86488777 0.80339277 3.6888902e-39
0.77170312 -0.8538748 0.80918443 4.241701e-39
0.73308069 -0.82973868 0.80103183 3.7814417e-39
0.70371526 -0.8129921 0.80277872 3.7807257e-39
0.68082786 -0.80143654 0.8055467 4.3346141e-39
0.71489823 -0.71916807 0.80298531 2.6750956e-39
0.7689451 -0.71161813 0.80961835 1.752419e-39
0.75597358 -0.69471216 0.80683249 2.1212029e-39
0.76094735 -0.69038421 0.80790395 1.6598703e-39
0.75300002 -0.6848371 0.8061896 1.6609423e-39
0.73490638 -0.67380732 0.80608386 2.2137657e-39
0.75547451 -0.67685723 0.80672532 1.7527862e-39
0.738581 -0.6677509 0.80670357 2.5825482e-39
0.7559973 -0.66555643 0.80659139 2.6751054e-39
0.73476934 -0.6565246 0.80567074 2.8598596e-39
0.75555396 -0.65651965 0.80651104 3.5045059e-39
0.76569307 -0.6554082 0.80574024 3.6889e-39
0.74075764 -0.6476832 0.80670357 4.7023415e-39
0.75899106 -0.64438593 0.80704677 3.7810956e-39
0.76676607 -0.64826369 0.80304074 4.0573266e-39
0.7700001 -0.64119297 0.80195242 6.3636593e-39
0.75499654 -0.63620502 0.80645144 6.0856374e-39
0.76595294 -0.63876384 0.80112612 6.63917e-39
0.77347678 -0.63551605 0.80267543 4.1506068e-39
0.78147686 -0.63250154 0.80432802 4.0576937e-39
0.7969768 -0.63390398 0.80752981 8.1146602e-39
0.75697094 -0.62803507 0.80551636 7.1008782e-39
0.76461291 -0.625736 0.80427396 5.9019749e-39
0.76681995 -0.6152063 0.80560821 7.1927081e-39
0.76904774 -0.60942924 0.80341792 1.3002832e-38
0.77851939 -0.60582489 0.80339843 9.5915881e-39
0.78890121 -0.59612423 0.80556744 9.0373311e-39
0.80285376 -0.59217095 0.80439955 5.5338944e-39
1.9199013 -0.46900934 0.80736101 4.7005212e-39
1.9138688 -0.4504379 0.80657375 4.7005212e-39
1.9186466 -0.43421111 0.80686897 4.8849152e-39
1.9165355 -0.41657823 0.80647528 5.1611462e-39
1.9338582 -0.36815754 0.80765623 6.8224808e-39
2.0897441 -0.28490797 0.80390751 2.2314226e-38
2.1062815 -0.25220737 0.80517709 2.1853968e-38
2.0807362 -0.24740158 0.80272859 2.286632e-38
2.1170723 -0.23511583 0.80617464 2.203836e-38
2.0737293 -0.22854355 0.80191243 2.2774125e-38
1.2440001 -0.21081397 0.80752951 6.3007227e-39
2.1088374 -0.2159944 0.80544913 2.2129835e-38
1.2540003 -0.2006557 0.80897719 5.0056595e-39
2.0637197 -0.20954119 0.80082417 2.2590813e-38
2.0996027 -0.19690663 0.80463302 2.2222031e-38
2.088367 -0.17779332 0.80363542 2.2129835e-38
1.2885027 -0.15763728 0.80208564 5.0034917e-39
1.3425031 -0.15084735 0.80948573 3.605775e-39
2.0801368 -0.15907426 0.80290997 2.2129835e-38
2.0679045 -0.14021128 0.80182171 2.2314226e-38
1.3670001 -0.12806736 0.80035073 4.2511556e-39
2.0596778 -0.12177075 0.80109626 2.2222031e-38
1.3790001 -0.11641207 0.80190253 3.0450061e-39
1.3800097 -0.11663549 0.80203182 2.4017919e-39
1.3690001 -0.10316911 0.80060935 1.5027899e-38
1.3700111 -0.10338373 0.80073869 1.641047e-38
2.052453 -0.10350551 0.80046147 2.2129835e-38
1.3435071 -0.076956198 0.80962276 5.7164808e-39
1.3690151 -0.065734923 0.80060935 2.2133972e-39
1.3700001 -0.065624662 0.80073869 2.1215645e-39
1.9899415 -0.064398289 0.80991971 2.2958873e-38
1.9797578 -0.047003806 0.80873877 2.2866678e-38
1.280509 -0.03838275 0.80098927 3.320472e-39
1.9735701 -0.029863266 0.80795145 2.286632e-38
1.4970102 -0.016776279 0.80366474 2.0293674e-39
1.9663641 -0.012836201 0.80706573 2.286632e-38
1.516511 -0.0032939769 0.80603576 2.0290073e-39
1.9561262 0.0040582139 0.80588484 2.2958514e-38
1.4390125 0.022991061 0.80966139 3.0435222e-39
1.9509008 0.020796778 0.80519593 2.286632e-38
1.9446564 0.037414148 0.80440867 2.2958873e-38
1.513514 0.051297564 0.80567098 2.0290059e-39
1.9333578 0.053802803 0.80312932 2.2866677e-38
1.5055146 0.064649627 0.80469823 2.4907057e-39
1.9270825 0.070135534 0.80234206 2.2866677e-38
1.9612848 0.072696492 0.80952603 2.2222031e-38
1.9349313 0.086856589 0.8029325 2.2958873e-38
1.9630735 0.089926094 0.80972284 2.2037639e-38
0.33269602 0.11258589 0.80607015 2.1020967e-38
0.34025139 0.11114521 0.80324 1.6595216e-38
0.30184266 0.12797849 0.80030018 6.453327e-39
0.31394273 0.12361534 0.80633181 1.0325549e-38
0.29395899 0.13875681 0.80463707 7.7455035e-39
0.30043301 0.13352917 0.80755091 7.2838093e-39
0.27556306 0.14999013 0.80036938 7.5611192e-39
0.28348714 0.14653911 0.80482012 9.1284478e-39
0.27664709 0.15766551 0.80715203 8.8525811e-39
0.28147468 0.15348753 0.80655813 1.0235154e-38
0.26831278 0.16428947 0.80370146 9.3142782e-39
1.8905199 0.16164446 0.80189919 1.7058703e-38
1.894521 0.1785413 0.80229282 1.80725e-38
0.27482161 0.18160746 0.80429733 1.1431169e-38
1.8870218 0.19445363 0.80155474 1.8901905e-38
1.8800225 0.2102994 0.80086589 1.9363244e-38
0.25069761 0.27308238 0.80298412 2.2313498e-38
1.8080299 0.34652007 0.80967975 2.0193004e-38
1.799 0.36095923 0.80872452 2.0100808e-38
1.8000615 0.36093789 0.80883068 2.0193004e-38
1.787063 0.37441212 0.80745089 2.0193004e-38
1.7920001 0.37552771 0.80798155 2.0100808e-38
1.7820323 0.38931522 0.80692017 2.0377394e-38
1.7725329 0.40314579 0.8059119 2.0285199e-38
1.7665339 0.4175542 0.80527508 2.0285197e-38
1.7570345 0.43111795 0.80426675 2.0377394e-38
1.7505352 0.44520211 0.80357683 2.0377033e-38
1.7425361 0.45884049 0.80272776 2.0377395e-38
1.7360368 0.47271189 0.80203789 2.0377395e-38
1.727075 0.48577359 0.80108267 2.0469591e-38
1.7310001 0.4869464 0.80150717 2.0377395e-38
1.7210383 0.49964613 0.80044585 2.0377395e-38
1.6645439 0.60384369 0.80923992 2.0377035e-38
1.6580446 0.61655831 0.80849981 2.0377032e-38
1.6510453 0.62900686 0.80770278 2.046887e-38
1.6435459 0.64117783 0.80684888 2.0376673e-38
1.6385467 0.65409851 0.80627954 2.0284479e-38
1.6290001 0.66543794 0.80519783 2.0284481e-38
1.6300945 0.665613 0.80531168 2.0192282e-38
1.625548 0.67862231 0.80479932 2.0284841e-38
1.6190486 0.69073337 0.80405921 2.0192645e-38
1.6130493 0.70293236 0.80337602 2.0100449e-38
1.6070001 0.71512687 0.80269283 2.0100086e-38
1.6101 0.71610534 0.80303442 2.0192285e-38
1.5990001 0.72635424 0.80178195 2.0192285e-38
1.6021012 0.72735679 0.80212355 2.0192285e-38
1.5930512 0.73817146 0.80109876 2.0100807e-38
1.5861036 0.74948817 0.80030173 2.0100086e-38
1.5870001 0.75007081 0.80041558 2.0100805e-38
1.5441122 0.82952124 0.8093794 1.9823855e-38
1.5460001 0.830616 0.80962259 2.0007891e-38
1.5400001 0.84169263 0.80889308 1.98235e-38
1.5335574 0.85235322 0.80810273 1.9731303e-38
1.5270579 0.86299777 0.80731237 1.9455439e-38
1.5155584 0.87107497 0.80591416 1.9271046e-38
1.4970593 0.88898498 0.80366474 1.2910275e-38
1.511559 0.88273239 0.80542779 1.8810069e-38
1.4845598 0.8960464 0.80214489 5.4427932e-39
1.4361253 0.9491933 0.80927342 2.3992444e-39
1.4380001 0.95047748 0.80953205 2.49144e-39
1.4155633 0.96350646 0.80662251 2.6758271e-39
1.4350634 0.9617483 0.80914414 4.7041379e-39
1.4054981 1.0300645 0.80772161 1.9733102e-38
1.4073244 1.0442456 0.8079803 1.9087735e-38
1.4140682 1.0527745 0.80642849 1.8166489e-38
1.3970828 1.0638877 0.80668712 1.9640903e-38
1.4130689 1.0650108 0.80629915 1.8165052e-38
1.3999014 1.0786903 0.80707502 1.9456515e-38
1.4075694 1.0743148 0.80558795 1.825689e-38
1.4020698 1.0835338 0.80487674 1.8164694e-38
1.3979497 1.0919503 0.80558801 1.871823e-38
1.401 1.0957309 0.8047474 1.8348723e-38
1.3835546 1.1068666 0.80500603 1.936324e-38
1.3948476 1.1028285 0.80519998 1.8717869e-38
1.3790001 1.1189471 0.80190253 1.7703356e-38
1.3881429 1.1123009 0.80306637 1.7979943e-38
1.391 1.1144912 0.80345428 1.7979943e-38
1.3741934 1.1271842 0.80254906 1.8072141e-38
1.3831439 1.1215423 0.80241978 1.7703356e-38
1.3691455 1.136984 0.80060935 1.7150542e-38
1.3705959 1.137445 0.80209649 1.7795913e-38
1.3690445 1.148349 0.80319566 1.8256896e-38
1.3589739 1.1540402 0.80190253 1.7703722e-38
1.3457776 1.16996 0.80022144 3.5041388e-39
1.3518795 1.161697 0.80099732 9.5886986e-39
0.86206424 -0.91105205 0.81906456 3.3197475e-39
0.77998799 -0.86095458 0.81951094 3.874715e-39
0.70371526 -0.8129921 0.81068981 3.8732814e-39
0.6845001 -0.80467558 0.81416047 4.1495068e-39
0.7629447 -0.71526676 0.81615865 2.4899953e-39
0.77400005 -0.7150237 0.81068981 1.8446146e-39
0.71339071 -0.7052452 0.81618106 3.87328e-39
0.75747293 -0.70354462 0.81493759 2.8594981e-39
0.7359699 -0.69182289 0.81476146 3.597433e-39
0.75700009 -0.69536072 0.81482661 3.5981393e-39
0.76400006 -0.69234771 0.81638074 1.7542267e-39
0.74376166 -0.68749595 0.81411248 4.150604e-39
0.75394797 -0.68560398 0.81416047 1.5694725e-39
0.77046674 -0.68309885 0.81726879 2.4903526e-39
0.73958004 -0.67708653 0.81519008 2.766585e-39
0.74718297 -0.67402321 0.81622785 1.8460608e-39
0.75522459 -0.67279983 0.81443799 1.8446217e-39
0.76431978 -0.67115259 0.81593668 2.3066858e-39
0.738581 -0.6677509 0.81476146 2.6743865e-39
0.75597513 -0.66357338 0.81460452 3.5963414e-39
0.73988771 -0.65570331 0.81476152 4.1495222e-39
0.75732893 -0.65771627 0.81466007 3.6885385e-39
0.76380169 -0.65416324 0.81610322 3.7810928e-39
0.74588227 -0.64680433 0.81583297 4.5172285e-39
0.76475787 -0.64697218 0.81632519 3.9654897e-39
0.77247632 -0.64280748 0.81431621 4.9803647e-39
0.78195274 -0.64083761 0.81240422 1.0788695e-38
0.75001246 -0.63654745 0.81647587 5.4402722e-39
0.76640743 -0.63752544 0.81649172 4.6115836e-39
0.7769531 -0.63773263 0.81926703 3.966217e-39
0.78272676 -0.63526058 0.81256491 8.4838e-39
0.79795349 -0.63455397 0.81583297 5.1636825e-39
0.80000007 -0.63567591 0.81626153 5.0711254e-39
0.75603032 -0.62743294 0.81754732 5.1654958e-39
0.76489878 -0.62461829 0.81572032 6.5480617e-39
0.77595401 -0.62917215 0.81904495 3.7818271e-39
0.76364726 -0.61633855 0.81593668 4.9814493e-39
0.77331662 -0.6164397 0.81269407 1.0511754e-38
0.76904482 -0.60795528 0.8171578 7.6544037e-39
0.77700806 -0.60491586 0.81101131 1.0144042e-38
0.78149319 -0.60366184 0.81993312 7.7465895e-39
0.79046148 -0.60102969 0.81390429 6.5480449e-39
0.79338461 -0.59474629 0.81454718 1.1988666e-38
0.80940032 -0.59592551 0.81797594 5.1661825e-39
2.0145047 -0.31087905 0.81493866 8.3916086e-39
2.0659754 -0.30002859 0.81985921 2.2406423e-38
2.0707448 -0.22823769 0.81956398 2.2774125e-38
2.0627241 -0.20944695 0.81857991 2.2958514e-38
1.2665008 -0.19058836 0.81078672 4.4506865e-39
2.05668 -0.19098316 0.81779259 2.2958514e-38
1.2755014 -0.17991474 0.81208962 4.5457646e-39
2.0476305 -0.17240588 0.81671005 2.2866677e-38
1.282002 -0.16882634 0.8130306 5.3780476e-39
1.2950026 -0.15830335 0.81491256 5.0071001e-39
2.0355685 -0.15378432 0.81533229 2.286632e-38
2.0689056 -0.14027819 0.81985921 2.2314582e-38
1.3565035 -0.13974214 0.81140429 2.4987043e-39
2.0254805 -0.13550512 0.81415141 2.2774125e-38
1.3635042 -0.12786527 0.81236351 4.1643704e-39
1.3770049 -0.11634507 0.81421363 2.7738409e-39
2.0203722 -0.11768953 0.8134625 2.2958873e-38
1.3765056 -0.10372292 0.81414509 3.6896357e-39
2.0514522 -0.10345404 0.81818622 2.2222031e-38
2.0122497 -0.099837363 0.81247836 2.2958513e-38
1.3475063 -0.08951135 0.81017089 5.9930761e-39
1.9991035 -0.08193697 0.81100219 2.2958513e-38
2.0442293 -0.085304841 0.81749737 2.2406422e-38
1.3740076 -0.065862298 0.81380248 1.8442587e-39
2.0340056 -0.067156047 0.81651324 2.2406422e-38
2.0237842 -0.049162012 0.81552911 2.2314226e-38
1.2840091 -0.038470581 0.81332016 2.8591351e-39
2.0145652 -0.031343225 0.81464344 2.2406422e-38
1.4850103 -0.016661067 0.81560981 2.2137615e-39
2.0033469 -0.013638195 0.8135609 2.2130554e-38
1.4890001 -0.003160639 0.81612706 2.0290059e-39
1.4900219 -0.0033263508 0.8162564 2.0290059e-39
1.9961315 0.003876511 0.81287205 2.2222031e-38
1.4940116 0.010243721 0.81677365 2.1212015e-39
1.9919177 0.021291023 0.81247836 2.2222032e-38
1.4460262 0.036130909 0.81056654 3.1360793e-39
1.45 0.036375619 0.81108379 3.1357164e-39
1.9767051 0.038528677 0.81100219 2.2222031e-38
1.514014 0.051312134 0.8193599 2.2133986e-39
1.9343659 0.053823903 0.81986886 2.2958873e-38
1.9694941 0.055679709 0.81031334 2.2037639e-38
1.5060147 0.064668059 0.8183254 2.7672912e-39
1.9280915 0.070164353 0.81901979 2.2866677e-38
1.5580156 0.080573499 0.81108165 2.490347e-39
1.557 0.094597638 0.81096005 3.0438823e-39
1.5600325 0.094583206 0.81132483 3.4123061e-39
2.0418351 0.10800356 0.81316727 2.2958873e-38
0.33105874 0.11681092 0.81453151 1.880827e-38
0.31714413 0.12530971 0.81273425 1.0694692e-38
0.32155022 0.12420085 0.81668454 1.429032e-38
1.842 0.12570612 0.81328839 1.4199918e-38
1.850036 0.12598391 0.81413746 1.5122233e-38
0.30403998 0.13710801 0.81455004 1.0695052e-38
0.31134045 0.13208075 0.81827897 1.2631517e-38
0.29181969 0.14685394 0.81524086 9.773813e-39
1.8680191 0.1435557 0.81604797 1.5583571e-38
0.27756399 0.15607284 0.81561852 7.2845254e-39
0.28479111 0.15315156 0.81479919 8.944411e-39
0.27361915 0.16684353 0.81585348 7.6525904e-39
1.89202 0.16175775 0.81859523 1.6597006e-38
0.26810792 0.17862912 0.81088603 8.7618134e-39
1.8925209 0.17837486 0.81864834 1.8164696e-38
1.8860216 0.19436263 0.81795841 1.8994459e-38
1.877045 0.20990029 0.81700319 1.9455439e-38
1.8790002 0.21030372 0.81721544 1.9455081e-38
1.8700235 0.22571737 0.81626022 1.973167e-38
1.8645242 0.24149448 0.81567645 1.9824223e-38
0.27512485 0.25259331 0.81416374 1.9918564e-38
1.853025 0.25645474 0.81445587 1.9824221e-38
0.27911818 0.26158854 0.81179363 2.2406051e-38
1.8460259 0.27182066 0.81371295 2.0100449e-38
1.8380268 0.28694087 0.81286383 2.0100808e-38
1.8285275 0.30171949 0.81185555 2.010081e-38
1.8235283 0.31703913 0.81132483 2.010081e-38
1.8140292 0.33155844 0.81031656 2.0008612e-38
1.7580347 0.43133265 0.81988609 2.0377395e-38
1.7510355 0.44531345 0.81908906 2.0469591e-38
1.7435361 0.45907071 0.8182351 2.0561786e-38
1.7355368 0.47259295 0.81732416 2.0469232e-38
1.728 0.48620901 0.81647021 2.0468869e-38
1.7300751 0.48651069 0.81669796 2.0468869e-38
1.7215383 0.49977279 0.81573009 2.0377394e-38
1.713039 0.51280844 0.81476223 2.046923e-38
1.7060397 0.52611589 0.81396526 2.0377035e-38
1.6970403 0.53876179 0.81294048 2.0469228e-38
1.6920412 0.55240595 0.81237119 2.0377036e-38
1.6855419 0.56553453 0.81163108 2.046923e-38
1.6790426 0.57856262 0.81089097 2.0376676e-38
1.6745434 0.59210527 0.81037855 2.0469229e-38
